2.10374	9.83039	0.67284
2.104	9.82968	0.672927
2.10407	9.82885	0.67297
2.10418	9.82818	0.672958
2.10412	9.82769	0.672872
2.1045	9.82738	0.672521
2.10483	9.8268	0.672446
2.10492	9.8261	0.672428
2.10499	9.82514	0.672686
2.10578	9.82438	0.672828
2.10599	9.82412	0.673188
2.10753	9.82278	0.673065
2.10872	9.82113	0.672963
2.11063	9.82094	0.672912
2.11097	9.81969	0.673125
2.11176	9.8181	0.673132
2.1142	9.81656	0.673275
2.11512	9.81487	0.67329
2.11596	9.81237	0.673359
2.11747	9.80952	0.673631
2.11909	9.80706	0.673724
2.12054	9.80449	0.673826
2.12248	9.80211	0.673752
2.12436	9.79876	0.672599
2.12592	9.79535	0.671313
2.12759	9.79208	0.671699
2.13005	9.78765	0.671708
2.13112	9.78484	0.671521
2.13208	9.78105	0.671483
2.13248	9.77785	0.670869
2.13392	9.77371	0.670494
2.13515	9.76973	0.669145
2.13702	9.7649	0.667336
2.13816	9.76034	0.666365
2.13848	9.75676	0.666375
2.13862	9.7534	0.666376
2.13941	9.74924	0.665868
2.1409	9.74517	0.664762
2.14145	9.74082	0.664441
2.14169	9.73775	0.663184
2.14152	9.73428	0.663029
2.14248	9.72904	0.663256
2.14266	9.72445	0.663892
2.14365	9.7189	0.664857
2.14498	9.71358	0.66529
2.14545	9.70821	0.666211
2.14575	9.70147	0.668473
2.14701	9.69697	0.670566
2.14955	9.69038	0.672035
2.15114	9.68404	0.673659
2.15339	9.67945	0.673974
2.15527	9.67506	0.674034
2.1573	9.66974	0.672418
2.15866	9.66502	0.672343
2.1593	9.65969	0.672839
2.1612	9.65538	0.673141
2.16396	9.64904	0.673514
2.16579	9.64582	0.673634
2.16765	9.64118	0.673748
2.1691	9.63615	0.673738
2.1705	9.63221	0.673482
2.17203	9.62643	0.673102
2.1736	9.62129	0.673185
2.17384	9.61629	0.673323
2.17478	9.61111	0.67341
2.17617	9.60582	0.673308
2.17791	9.60032	0.673381
2.17898	9.5954	0.67335
2.17939	9.59044	0.673191
2.17972	9.58464	0.673135
2.18007	9.5788	0.673015
2.18054	9.57256	0.672897
2.18071	9.56615	0.67286
2.18126	9.55849	0.672686
2.18141	9.55098	0.672839
2.18203	9.5436	0.673207
2.18234	9.53622	0.673481
2.18302	9.52871	0.673887
2.18328	9.52037	0.673994
2.18387	9.51197	0.67411
2.18409	9.50381	0.674478
2.18495	9.49459	0.67458
2.18513	9.48554	0.674659
2.18575	9.47543	0.674598
2.18571	9.46444	0.674644
2.18574	9.45407	0.674561
2.18604	9.44397	0.674352
2.18606	9.43161	0.674271
2.18604	9.42072	0.674214
2.1859	9.40999	0.674393
2.18545	9.39785	0.674541
2.18479	9.38562	0.674664
2.18438	9.37316	0.674647
2.18422	9.35983	0.674834
2.18368	9.34605	0.675183
2.18316	9.33278	0.676035
2.18281	9.32016	0.676164
2.18254	9.30554	0.676336
2.1825	9.28958	0.677412
2.18262	9.27424	0.681617
2.18304	9.2581	0.685307
2.18312	9.24691	0.689335
2.1833	9.23319	0.691142
2.18338	9.22031	0.692734
2.1828	9.21037	0.694007
2.18271	9.19788	0.694404
2.18287	9.18463	0.69611
2.18325	9.17113	0.69881
2.18454	9.15583	0.701393
2.18647	9.14007	0.705158
2.18668	9.12915	0.707549
2.18689	9.12087	0.708512
2.18655	9.11052	0.709456
2.18872	9.09744	0.710387
2.18883	9.08359	0.710928
2.18891	9.07205	0.711202
2.18858	9.06005	0.711547
2.18861	9.04387	0.712254
2.189	9.02953	0.713029
2.19009	9.0155	0.713884
2.19104	9.00024	0.714112
2.19205	8.98637	0.714191
2.19239	8.97159	0.714208
2.19292	8.95553	0.714009
2.19407	8.93805	0.713708
2.1956	8.92242	0.713411
2.19588	8.90962	0.711211
2.19649	8.89023	0.710272
2.19707	8.87187	0.708773
2.19774	8.85435	0.708442
2.19867	8.83702	0.707119
2.20113	8.81812	0.706465
2.20132	8.80431	0.705497
2.20149	8.78878	0.699097
2.20498	8.76872	0.69477
2.20971	8.74546	0.694531
2.21471	8.72631	0.694586
2.21445	8.71014	0.695057
2.21212	8.69835	0.69461
2.21016	8.68719	0.694058
2.21074	8.66987	0.693489
2.21409	8.65089	0.692796
2.21484	8.63407	0.692664
2.21582	8.61697	0.693042
2.21612	8.60304	0.693846
2.21766	8.58714	0.695207
2.21911	8.57299	0.697796
2.21928	8.55746	0.69884
2.21959	8.54308	0.700294
2.2198	8.52797	0.700483
2.21979	8.51342	0.70157
2.21959	8.49888	0.703067
2.21929	8.48334	0.704096
2.2192	8.46535	0.70507
2.21902	8.45004	0.706734
2.21827	8.43437	0.707524
2.21803	8.41793	0.707924
2.21787	8.40159	0.70906
2.21774	8.38618	0.70934
2.21684	8.36969	0.709458
2.21641	8.35258	0.709573
2.2151	8.33567	0.709126
2.21467	8.31809	0.708462
2.21375	8.30129	0.708098
2.21219	8.28397	0.707967
2.2111	8.26556	0.707914
2.21015	8.24791	0.707669
2.20943	8.23055	0.706932
2.20804	8.21342	0.706103
2.20703	8.19462	0.705938
2.20582	8.17733	0.704036
2.20452	8.16004	0.700543
2.20423	8.14073	0.699954
2.20394	8.11595	0.702662
2.20384	8.09826	0.708197
2.20356	8.08174	0.709774
2.2032	8.06559	0.709963
2.20251	8.0491	0.708853
2.20218	8.03326	0.70863
2.202	8.01697	0.708553
2.2019	8.00116	0.710989
2.20196	7.98316	0.717719
2.20203	7.96687	0.719591
2.20174	7.95497	0.720987
2.20166	7.94113	0.722074
2.2023	7.92529	0.722261
2.20234	7.91034	0.724893
2.20195	7.89504	0.726314
2.2004	7.88058	0.726829
2.19896	7.86565	0.727852
2.19879	7.84755	0.728829
2.19859	7.82869	0.730042
2.19865	7.81024	0.73042
2.19602	7.79768	0.730061
2.19296	7.78111	0.729144
2.19128	7.76326	0.728625
2.18962	7.74478	0.728499
2.18863	7.72699	0.727631
2.18686	7.70974	0.727182
2.18476	7.69233	0.725148
2.18267	7.67515	0.724089
2.18138	7.65683	0.722525
2.18037	7.64021	0.722223
2.17781	7.62566	0.720991
2.17616	7.60989	0.713059
2.17602	7.58445	0.711128
2.17529	7.5652	0.716684
2.17406	7.54619	0.716996
2.17435	7.52952	0.710523
2.17431	7.51077	0.708891
2.17407	7.49163	0.709254
2.17049	7.47635	0.708101
2.16809	7.45922	0.702601
2.16789	7.44526	0.698384
2.16909	7.43329	0.698192
2.1683	7.41623	0.70162
2.16274	7.39663	0.706532
2.15311	7.38189	0.709912
2.1484	7.36648	0.710169
2.14727	7.35284	0.711401
2.14613	7.33835	0.712976
2.14499	7.32254	0.713068
2.14013	7.30674	0.713974
2.13512	7.29007	0.716707
2.13113	7.2735	0.72078
2.12901	7.25833	0.723547
2.12741	7.24401	0.724908
2.12532	7.22749	0.725208
2.12125	7.2104	0.725312
2.11558	7.19411	0.725147
2.1107	7.17696	0.725126
2.1048	7.15978	0.725007
2.09928	7.14307	0.725074
2.09471	7.12714	0.725266
2.09125	7.11027	0.725343
2.08818	7.09169	0.725894
2.08451	7.07232	0.726477
2.07942	7.05373	0.726621
2.07311	7.03547	0.727619
2.06848	7.01719	0.726969
2.07137	7.00562	0.717894
2.07841	6.99287	0.711593
2.06685	6.97074	0.717929
2.05177	6.94945	0.730241
2.03129	6.92874	0.737324
2.02426	6.91163	0.737057
2.02456	6.90059	0.734176
2.02615	6.88909	0.733157
2.02629	6.8736	0.731854
2.02373	6.85854	0.731664
2.01055	6.84212	0.735816
2.00061	6.82717	0.743763
1.99275	6.81277	0.752539
1.9858	6.79925	0.755629
1.98138	6.78804	0.755216
1.97855	6.77409	0.751606
1.97671	6.76161	0.751049
1.96881	6.74779	0.751055
1.95805	6.73378	0.755924
1.94601	6.71795	0.758908
1.93798	6.7027	0.76439
1.93306	6.68881	0.766314
1.92925	6.67537	0.764471
1.92533	6.66144	0.759886
1.91908	6.64823	0.759068
1.90718	6.6324	0.758872
1.89607	6.61705	0.760053
1.88598	6.60225	0.760726
1.88201	6.5893	0.760598
1.88057	6.57638	0.757045
1.87609	6.56281	0.753094
1.8679	6.54727	0.751563
1.85528	6.52953	0.750436
1.84429	6.51098	0.750155
1.84014	6.49544	0.748076
1.83951	6.4842	0.737808
1.83979	6.46994	0.737092
1.82959	6.45351	0.743382
1.81895	6.43745	0.745131
1.81709	6.42238	0.743236
1.81005	6.4045	0.741129
1.8039	6.3881	0.741103
1.7995	6.37392	0.741009
1.79619	6.36172	0.741117
1.79233	6.35033	0.741108
1.78562	6.33768	0.741854
1.77187	6.32386	0.745499
1.75841	6.31119	0.747592
1.75347	6.29901	0.748833
1.74577	6.28678	0.750605
1.73621	6.2773	0.753273
1.72757	6.26641	0.757528
1.71814	6.25524	0.762883
1.70459	6.24306	0.766055
1.69101	6.23269	0.771435
1.68096	6.22149	0.775854
1.67347	6.21073	0.777498
1.66761	6.20059	0.778309
1.65965	6.18997	0.778508
1.64686	6.17858	0.780646
1.63567	6.16688	0.780822
1.62709	6.15621	0.779831
1.61875	6.14586	0.778115
1.61016	6.1353	0.777998
1.59634	6.12519	0.778327
1.58428	6.11468	0.778035
1.57336	6.10344	0.775188
1.56377	6.0915	0.774113
1.55057	6.08131	0.774867
1.53309	6.07093	0.776688
1.51619	6.0604	0.776778
1.5057	6.04818	0.774168
1.49885	6.03612	0.76798
1.50125	6.02229	0.757352
1.49989	6.01002	0.756911
1.47423	6.00086	0.772835
1.4426	5.99042	0.780187
1.41009	5.98135	0.782021
1.39443	5.97274	0.781359
1.3948	5.96269	0.778552
1.39627	5.95158	0.775289
1.38678	5.94296	0.770186
1.37053	5.93556	0.769872
1.35418	5.92529	0.771739
1.34231	5.91635	0.777767
1.3246	5.91017	0.791457
1.30452	5.90457	0.797339
1.29261	5.89713	0.795778
1.28354	5.88932	0.791893
1.27218	5.88283	0.791445
1.26398	5.87494	0.790941
1.25155	5.86936	0.790655
1.2356	5.86439	0.793001
1.21756	5.85795	0.794455
1.20449	5.8508	0.795344
1.19066	5.84251	0.796347
1.17919	5.83476	0.796528
1.16646	5.82685	0.795923
1.14889	5.8202	0.795984
1.13165	5.81344	0.79594
1.11726	5.80617	0.795926
1.10347	5.79754	0.7959
1.09021	5.78877	0.795722
1.07552	5.78133	0.793852
1.06025	5.77343	0.789989
1.04374	5.76552	0.788194
1.027	5.75752	0.787921
1.00797	5.75072	0.788041
0.991468	5.74359	0.787714
0.981132	5.73417	0.78165
0.976457	5.72124	0.778174
0.964158	5.71174	0.780245
0.948249	5.70357	0.781562
0.930219	5.69489	0.782106
0.909387	5.68845	0.783635
0.894808	5.68046	0.783869
0.883651	5.67131	0.784011
0.875949	5.66069	0.783085
0.867853	5.65057	0.779808
0.854253	5.64231	0.779315
0.836836	5.63512	0.781326
0.81484	5.63135	0.786929
0.795881	5.62687	0.789834
0.783239	5.62058	0.790948
0.770733	5.61307	0.792064
0.758143	5.60547	0.793513
0.743707	5.59814	0.795431
0.728854	5.59172	0.798595
0.714083	5.58499	0.799505
0.699685	5.57807	0.799797
0.684606	5.57147	0.800738
0.668529	5.56502	0.804482
0.651973	5.55913	0.80465
0.638785	5.55299	0.803921
0.624304	5.54608	0.80244
0.608219	5.54061	0.800606
0.59411	5.53543	0.799016
0.578263	5.53129	0.798444
0.56181	5.5267	0.797785
0.545996	5.52161	0.79733
0.52979	5.51598	0.797166
0.511644	5.51203	0.797187
0.492439	5.50786	0.798149
0.47516	5.50413	0.798238
0.461542	5.49873	0.795638
0.448063	5.493	0.790578
0.434225	5.48598	0.788461
0.413107	5.48259	0.789335
0.387968	5.48199	0.796887
0.367604	5.48165	0.801614
0.355202	5.47848	0.801819
0.34337	5.47182	0.800965
0.331073	5.46661	0.801037
0.315273	5.4641	0.801568
0.298669	5.46359	0.803453
0.279866	5.46333	0.80784
0.262515	5.46303	0.812945
0.247929	5.46182	0.817217
0.236353	5.46118	0.818599
0.225011	5.46099	0.818326
0.213344	5.46152	0.817187
0.196941	5.46229	0.817115
0.182912	5.46265	0.817912
0.169665	5.46265	0.819418
0.155271	5.46234	0.820238
0.137753	5.46195	0.821261
0.121005	5.4622	0.821891
0.106133	5.46386	0.821695
0.0917116	5.46591	0.819883
0.0761871	5.46658	0.818113
0.0594958	5.46766	0.817976
0.0431231	5.46922	0.817811
0.0281092	5.47157	0.815802
0.0125816	5.47301	0.813506
-0.0032005	5.47472	0.812807
-0.0205421	5.47535	0.811862
-0.0373936	5.47633	0.810409
-0.0523316	5.47841	0.809019
-0.0662704	5.48104	0.806091
-0.0781195	5.48287	0.802313
-0.0933346	5.4833	0.798672
-0.111984	5.48355	0.798243
-0.130358	5.48372	0.79838
-0.143892	5.48516	0.798864
-0.154472	5.48795	0.798898
-0.164166	5.49079	0.798309
-0.180123	5.49271	0.798235
-0.195616	5.49367	0.798274
-0.207695	5.49514	0.79776
-0.221895	5.49604	0.797276
-0.238821	5.49687	0.797758
-0.255399	5.49777	0.79907
-0.270213	5.49991	0.801374
-0.282309	5.50365	0.802526
-0.290803	5.50838	0.80278
-0.299697	5.51295	0.802763
-0.313325	5.51545	0.802875
-0.328844	5.51745	0.80331
-0.34419	5.51988	0.803523
-0.35965	5.52318	0.804459
-0.374205	5.5269	0.805664
-0.389386	5.53045	0.806507
-0.405674	5.53344	0.806721
-0.41907	5.53705	0.806305
-0.431954	5.54124	0.804675
-0.445952	5.54643	0.80428
-0.458483	5.55188	0.80351
-0.470977	5.55738	0.801739
-0.484617	5.56267	0.799412
-0.496812	5.56814	0.796092
-0.512103	5.57367	0.79408
-0.529415	5.5791	0.79359
-0.544794	5.58515	0.792717
-0.56119	5.59118	0.791843
-0.580433	5.59703	0.791721
-0.597291	5.60404	0.792693
-0.609921	5.61163	0.792909
-0.618725	5.61926	0.7924
-0.628711	5.6258	0.787776
-0.64827	5.63097	0.785459
-0.67146	5.63686	0.786676
-0.701634	5.6434	0.797603
-0.721724	5.65157	0.805678
-0.726041	5.66049	0.806187
-0.732439	5.6678	0.805683
-0.74436	5.6742	0.804155
-0.756511	5.68125	0.803863
-0.771155	5.68867	0.804791
-0.788696	5.69594	0.808451
-0.809659	5.70223	0.814305
-0.827044	5.70812	0.81857
-0.837006	5.71468	0.820983
-0.841558	5.72189	0.8215
-0.846746	5.72953	0.821708
-0.855604	5.73749	0.821769
-0.867899	5.74581	0.821877
-0.881493	5.75409	0.821965
-0.897166	5.76208	0.822449
-0.91486	5.77031	0.823462
-0.930178	5.77888	0.824295
-0.941612	5.78775	0.824513
-0.9512	5.79706	0.823876
-0.963348	5.8063	0.821783
-0.977689	5.8156	0.820303
-0.995745	5.82532	0.820091
-1.00916	5.83513	0.819483
-1.01796	5.84463	0.816702
-1.02998	5.85419	0.81336
-1.04529	5.86347	0.81104
-1.05921	5.87278	0.80847
-1.07057	5.88236	0.805126
-1.08347	5.89222	0.803908
-1.09692	5.90138	0.803133
-1.1082	5.90927	0.799204
-1.12645	5.91879	0.798595
-1.1462	5.93061	0.799069
-1.15563	5.93956	0.798817
-1.16436	5.94945	0.798107
-1.17825	5.96005	0.798879
-1.1949	5.97104	0.799944
-1.20562	5.9785	0.800038
-1.2163	5.9856	0.79924
-1.22809	5.99391	0.79823
-1.23895	6.00358	0.797672
-1.25008	6.01437	0.798331
-1.26127	6.02609	0.802327
-1.27089	6.03804	0.804762
-1.28183	6.04795	0.806043
-1.29563	6.05795	0.806912
-1.30945	6.06783	0.80835
-1.31869	6.07815	0.808638
-1.32637	6.08859	0.808485
-1.33774	6.10051	0.808159
-1.35329	6.11312	0.808336
-1.36958	6.12612	0.809388
-1.38293	6.13938	0.809728
-1.38928	6.14913	0.80962
-1.39446	6.15886	0.808092
-1.40045	6.16876	0.806018
-1.40897	6.17997	0.803124
-1.41798	6.19289	0.801878
-1.42749	6.20675	0.801362
-1.4365	6.22006	0.800707
-1.4475	6.23475	0.800064
-1.45814	6.24944	0.79976
-1.47127	6.26627	0.799549
-1.47996	6.28015	0.799722
-1.48756	6.29412	0.799885
-1.49562	6.30814	0.799959
-1.50117	6.31981	0.797308
-1.51259	6.33269	0.795894
-1.52864	6.35127	0.796517
-1.54431	6.37265	0.799987
-1.55849	6.39295	0.805024
-1.56205	6.40754	0.808127
-1.56206	6.41722	0.808358
-1.56553	6.42746	0.80798
-1.57621	6.43967	0.807925
-1.58722	6.45418	0.807932
-1.59531	6.47032	0.809305
-1.6067	6.48869	0.812587
-1.61456	6.50403	0.816335
-1.62162	6.51811	0.819131
-1.62587	6.5283	0.820687
-1.62788	6.53848	0.822559
-1.63031	6.55104	0.823817
-1.63365	6.56497	0.824564
-1.64026	6.58001	0.825419
-1.65214	6.59736	0.825938
-1.66085	6.61261	0.826213
-1.66448	6.62473	0.826413
-1.67074	6.63907	0.826559
-1.67625	6.65341	0.826091
-1.68376	6.66956	0.825568
-1.69152	6.68575	0.824949
-1.69803	6.70008	0.823167
-1.7046	6.71565	0.821521
-1.71049	6.73111	0.819854
-1.7172	6.74627	0.818523
-1.72331	6.76149	0.816382
-1.72872	6.77601	0.814395
-1.73569	6.79192	0.811397
-1.74471	6.80874	0.809126
-1.75437	6.82719	0.808203
-1.75961	6.8436	0.807985
-1.76272	6.85745	0.80758
-1.77068	6.87165	0.805713
-1.78424	6.89043	0.805412
-1.79524	6.90847	0.805171
-1.79912	6.92219	0.80511
-1.80203	6.93706	0.805516
-1.80913	6.95554	0.807419
-1.81711	6.97326	0.810738
-1.8236	6.98732	0.81155
-1.82762	6.99912	0.811619
-1.83485	7.0143	0.811985
-1.8422	7.03096	0.813487
-1.84934	7.04777	0.815077
-1.85503	7.0638	0.817016
-1.85939	7.07847	0.818946
-1.86291	7.09259	0.820404
-1.86575	7.10613	0.821722
-1.8689	7.12038	0.822582
-1.87201	7.13533	0.823118
-1.87652	7.14985	0.823314
-1.88287	7.16489	0.822783
-1.88895	7.17971	0.822772
-1.89705	7.19914	0.8237
-1.90102	7.21588	0.824136
-1.90439	7.23128	0.823502
-1.91106	7.24803	0.821753
-1.91835	7.26609	0.818911
-1.92254	7.28158	0.817621
-1.9239	7.29686	0.816653
-1.92411	7.31206	0.815243
-1.92553	7.32797	0.813275
-1.93123	7.34612	0.811085
-1.93823	7.36413	0.808227
-1.94375	7.38299	0.806387
-1.94745	7.40075	0.805782
-1.95188	7.4213	0.804724
-1.95628	7.44041	0.804425
-1.96003	7.45824	0.801451
-1.96342	7.4749	0.798212
-1.97174	7.49579	0.798208
-1.97758	7.51721	0.798417
-1.98101	7.53616	0.797499
-1.98385	7.55462	0.798099
-1.98625	7.57198	0.801199
-1.98822	7.59133	0.80703
-1.99029	7.60918	0.811611
-1.99325	7.62533	0.812261
-1.99839	7.64258	0.812361
-2.0051	7.66023	0.813776
-2.00841	7.67956	0.818554
-2.01054	7.69784	0.824015
-2.01322	7.71432	0.829893
-2.01911	7.73266	0.833677
-2.02531	7.75215	0.836437
-2.02698	7.7678	0.837531
-2.0279	7.77962	0.838833
-2.02895	7.79514	0.839159
-2.03497	7.8129	0.840117
-2.03969	7.83005	0.840515
-2.04347	7.84402	0.840781
-2.04694	7.86181	0.840552
-2.04742	7.87894	0.840226
-2.04894	7.89632	0.838525
-2.05343	7.91579	0.836831
-2.06005	7.93716	0.836596
-2.06335	7.95525	0.836781
-2.0662	7.97415	0.837224
-2.0674	7.99036	0.836033
-2.06919	8.00479	0.832139
-2.07387	8.02095	0.828368
-2.07757	8.03869	0.826628
-2.08144	8.05755	0.825783
-2.08237	8.07535	0.825082
-2.0828	8.08938	0.820847
-2.08871	8.10643	0.81756
-2.10049	8.12632	0.817784
-2.1085	8.14581	0.820281
-2.10921	8.16153	0.820409
-2.10916	8.17677	0.820528
-2.11006	8.1956	0.822683
-2.11466	8.21696	0.829609
-2.11862	8.23464	0.832676
-2.12034	8.24743	0.832813
-2.12243	8.25923	0.831534
-2.12536	8.27173	0.831359
-2.12775	8.28664	0.831305
-2.13047	8.30523	0.832655
-2.1329	8.32611	0.837155
-2.13313	8.34337	0.840781
-2.13097	8.3548	0.84133
-2.1295	8.36753	0.840877
-2.13039	8.38379	0.841515
-2.13205	8.39959	0.841882
-2.13217	8.41466	0.841694
-2.13095	8.42999	0.841834
-2.13006	8.44669	0.843105
-2.1303	8.46295	0.844164
-2.13168	8.47906	0.844734
-2.13299	8.49461	0.844574
-2.13307	8.50967	0.842259
-2.13112	8.52561	0.839201
-2.12856	8.54055	0.837065
-2.12808	8.55772	0.834665
-2.12819	8.57537	0.832619
-2.1283	8.5933	0.82984
-2.12829	8.60882	0.8278
-2.1272	8.62396	0.82484
-2.12707	8.64091	0.821131
-2.12782	8.65922	0.819126
-2.12807	8.67728	0.818703
-2.12814	8.69622	0.817941
-2.12723	8.71298	0.813453
-2.12722	8.73029	0.807155
-2.12874	8.74994	0.806771
-2.12937	8.7714	0.807988
-2.12941	8.79112	0.80841
-2.12835	8.80921	0.807303
-2.12734	8.82717	0.807251
-2.12706	8.84624	0.808808
-2.12472	8.86407	0.810579
-2.12326	8.88214	0.810726
-2.12308	8.90018	0.812461
-2.12288	8.91698	0.817874
-2.12281	8.93466	0.822608
-2.12325	8.95088	0.827847
-2.12324	8.96716	0.831804
-2.12181	8.98334	0.834167
-2.12018	9.00025	0.837885
-2.11724	9.01207	0.838165
-2.11663	9.02833	0.841201
-2.118	9.04572	0.846572
-2.1186	9.06249	0.850777
-2.11866	9.07758	0.852821
-2.1186	9.09444	0.853776
-2.11831	9.11082	0.85482
-2.11825	9.1268	0.856297
-2.11553	9.14337	0.85655
-2.11357	9.1598	0.856564
-2.11337	9.1775	0.855887
-2.11317	9.19679	0.854922
-2.11309	9.21478	0.854676
-2.11219	9.23192	0.854528
-2.11069	9.24873	0.854469
-2.11047	9.2663	0.853509
-2.11046	9.28437	0.852191
-2.11122	9.30281	0.851797
-2.11101	9.31995	0.851589
-2.11018	9.33736	0.849799
-2.11008	9.35367	0.845991
-2.11089	9.37082	0.839528
-2.11276	9.38892	0.838471
-2.11659	9.41012	0.839816
-2.11713	9.42904	0.842765
-2.11679	9.44453	0.842759
-2.11679	9.46131	0.84257
-2.11668	9.47931	0.845816
-2.1156	9.49651	0.850905
-2.11493	9.51403	0.851731
-2.11475	9.52865	0.851436
-2.11486	9.54559	0.84987
-2.11776	9.56274	0.849864
-2.11746	9.58135	0.855435
-2.11478	9.59868	0.861715
-2.11078	9.61272	0.864445
-2.10986	9.6315	0.86564
-2.10912	9.64524	0.865909
-2.10777	9.65928	0.865989
-2.10556	9.67378	0.866545
-2.10089	9.68969	0.868054
-2.09246	9.70568	0.869246
-2.08487	9.72016	0.869473
-2.07975	9.73607	0.869819
-2.07481	9.75224	0.871924
-2.07434	9.76616	0.873365
-2.07067	9.78034	0.873372
-2.06441	9.79531	0.870227
-2.05864	9.80881	0.867944
-2.05605	9.82382	0.866289
-2.05393	9.83903	0.864514
-2.04708	9.85491	0.862838
-2.03717	9.87062	0.860297
-2.02861	9.88586	0.858125
-2.02521	9.90139	0.856516
-2.02058	9.91933	0.85586
-2.01213	9.93585	0.855559
-2.004	9.95242	0.855433
-2.00059	9.96779	0.854318
-2.00038	9.98331	0.850504
-2.00116	10.0009	0.84687
-1.99968	10.0183	0.846893
-1.99178	10.0357	0.847182
-1.98991	10.0487	0.846734
-1.98594	10.0643	0.845287
-1.97433	10.0834	0.846917
-1.95519	10.1036	0.852554
-1.94222	10.1205	0.857755
-1.93511	10.1355	0.858888
-1.93028	10.1506	0.860887
-1.91824	10.1671	0.86572
-1.90563	10.1847	0.87236
-1.90179	10.1989	0.875932
-1.89915	10.2135	0.876887
-1.89164	10.2295	0.878719
-1.88239	10.2439	0.884225
-1.87326	10.2565	0.886858
-1.87311	10.2661	0.887144
-1.87402	10.2785	0.887407
-1.87372	10.2918	0.887479
-1.87252	10.3065	0.890055
-1.864	10.3208	0.891973
-1.84929	10.3344	0.89359
-1.83562	10.3476	0.897845
-1.82434	10.3624	0.898476
-1.82108	10.3757	0.898662
-1.81998	10.3885	0.898277
-1.81364	10.4024	0.897706
-1.80216	10.4171	0.89762
-1.78645	10.4327	0.897965
-1.77319	10.4469	0.897978
-1.76652	10.4597	0.896777
-1.76317	10.4733	0.896292
-1.75546	10.4884	0.894099
-1.75066	10.5018	0.892972
-1.73883	10.5149	0.8919
-1.73253	10.5262	0.89159
-1.73841	10.5392	0.888912
-1.73876	10.5575	0.886673
-1.73365	10.5774	0.887669
-1.72812	10.5893	0.887538
-1.72794	10.5984	0.885547
-1.71921	10.6108	0.885395
-1.70225	10.6253	0.886529
-1.68598	10.6383	0.889421
-1.66159	10.6496	0.893367
-1.64697	10.66	0.896212
-1.64137	10.6722	0.897297
-1.63846	10.6854	0.898063
-1.63451	10.6983	0.898292
-1.62129	10.7107	0.901506
-1.60299	10.7195	0.908401
-1.58803	10.7269	0.911225
-1.58097	10.7337	0.912399
-1.57103	10.7422	0.912677
-1.5623	10.7514	0.912812
-1.55673	10.7604	0.91348
-1.5458	10.7693	0.913652
-1.53199	10.7761	0.913791
-1.51371	10.7835	0.913913
-1.4976	10.7929	0.915039
-1.48596	10.8042	0.917453
-1.4713	10.8157	0.919757
-1.45758	10.8223	0.921462
-1.44464	10.8273	0.918905
-1.43595	10.833	0.916418
-1.4238	10.8438	0.913624
-1.40864	10.853	0.91197
-1.39039	10.859	0.91172
-1.37233	10.8652	0.91025
-1.35854	10.8726	0.907658
-1.34594	10.8823	0.907417
-1.33059	10.8901	0.909128
-1.31559	10.8976	0.909208
-1.30148	10.9046	0.908397
-1.2868	10.912	0.905468
-1.27463	10.9216	0.90312
-1.26119	10.9309	0.9029
-1.24658	10.9389	0.904102
-1.22868	10.9432	0.906183
-1.20762	10.9461	0.910145
-1.18576	10.9481	0.914203
-1.16743	10.9525	0.919292
-1.1527	10.9589	0.921816
-1.14088	10.9667	0.92187
-1.12714	10.9741	0.921389
-1.10792	10.9787	0.92513
-1.09002	10.9827	0.931158
-1.07088	10.9873	0.939478
-1.05576	10.9916	0.944424
-1.0432	10.9947	0.944646
-1.03199	10.9969	0.944592
-1.02262	10.9979	0.944073
-1.01191	11.0013	0.943276
-0.998913	11.0075	0.942732
-0.983644	11.0139	0.942906
-0.964803	11.0179	0.946284
-0.947445	11.0199	0.950103
-0.932647	11.021	0.95116
-0.918879	11.0246	0.95009
-0.907321	11.031	0.946059
-0.893272	11.0367	0.940986
-0.876931	11.0397	0.939245
-0.857096	11.04	0.94074
-0.838778	11.0402	0.943836
-0.823791	11.0434	0.943419
-0.809544	11.0497	0.94007
-0.794649	11.0548	0.935844
-0.777741	11.0571	0.93333
-0.760172	11.0573	0.933189
-0.743772	11.0578	0.932931
-0.726011	11.061	0.932872
-0.708772	11.0642	0.933058
-0.694841	11.0678	0.928251
-0.682549	11.0714	0.918934
-0.665431	11.0761	0.918078
-0.646143	11.082	0.918527
-0.62962	11.0846	0.918622
-0.611289	11.0865	0.921455
-0.592203	11.0886	0.928721
-0.575529	11.09	0.935237
-0.564019	11.0926	0.934988
-0.556884	11.0942	0.929504
-0.546261	11.0958	0.927848
-0.531985	11.0981	0.927731
-0.518549	11.0983	0.927735
-0.504048	11.0985	0.929026
-0.487456	11.0984	0.932609
-0.476235	11.0959	0.932761
-0.467752	11.0927	0.932498
-0.449541	11.0933	0.934168
-0.432867	11.0962	0.9367
-0.419201	11.0965	0.936773
-0.401315	11.0972	0.939864
-0.384909	11.0974	0.942342
-0.371246	11.0974	0.943837
-0.360244	11.0968	0.943087
-0.345086	11.0967	0.941281
-0.325668	11.0983	0.941746
-0.312112	11.0967	0.940794
-0.306823	11.0895	0.935106
-0.299042	11.0831	0.927493
-0.279647	11.0824	0.926092
-0.258018	11.0827	0.926894
-0.245732	11.0806	0.926236
-0.23261	11.076	0.923819
-0.213967	11.0747	0.922567
-0.196263	11.0731	0.920304
-0.17754	11.0711	0.920025
-0.160312	11.0667	0.920083
-0.146232	11.061	0.91978
-0.130817	11.0595	0.917788
-0.108227	11.0587	0.917702
-0.0846339	11.0551	0.921514
-0.0679929	11.0486	0.927233
-0.0536288	11.0428	0.931115
-0.0374074	11.0401	0.93524
-0.0181658	11.0386	0.937771
-0.00917018	11.0368	0.937703
-0.00751805	11.032	0.935838
0.00491175	11.0273	0.934822
0.0262006	11.021	0.935927
0.0461769	11.019	0.942728
0.0600397	11.0153	0.945101
0.071913	11.0089	0.945286
0.0800195	11.0033	0.944599
0.0899626	10.9988	0.944318
0.101268	10.9941	0.94472
0.112675	10.988	0.944925
0.125405	10.9808	0.945493
0.142822	10.9722	0.946279
0.166898	10.9629	0.948359
0.187411	10.955	0.949679
0.198401	10.9497	0.949732
0.208988	10.9437	0.948528
0.222749	10.9347	0.946859
0.236294	10.927	0.946281
0.248216	10.9185	0.944596
0.259594	10.9109	0.94133
0.272548	10.9055	0.937879
0.292474	10.8972	0.935369
0.31177	10.8878	0.934086
0.323392	10.8798	0.930867
0.331785	10.8748	0.926995
0.346523	10.8675	0.925181
0.362077	10.8604	0.924479
0.374917	10.855	0.922971
0.39213	10.8483	0.921244
0.411141	10.8414	0.920844
0.427311	10.8344	0.920614
0.443375	10.8265	0.921589
0.454273	10.8199	0.924377
0.467043	10.8131	0.927266
0.483504	10.8069	0.929966
0.497654	10.8017	0.932332
0.509231	10.7966	0.93256
0.51895	10.7884	0.931992
0.53197	10.7812	0.931212
0.545127	10.7745	0.931605
0.555416	10.7667	0.933508
0.562649	10.7589	0.935977
0.57114	10.7513	0.936878
0.583654	10.7427	0.93713
0.598348	10.7339	0.937773
0.607151	10.7265	0.937801
0.615539	10.719	0.937238
0.627292	10.709	0.936979
0.643986	10.6974	0.936951
0.660963	10.6852	0.936986
0.674439	10.6746	0.936993
0.68394	10.6658	0.93676
0.690888	10.6579	0.935852
0.698355	10.6482	0.93345
0.707353	10.6376	0.931544
0.718627	10.6271	0.930224
0.728533	10.6176	0.92925
0.739514	10.6077	0.928175
0.75263	10.596	0.926982
0.764696	10.5842	0.926338
0.773981	10.5735	0.925887
0.784881	10.5617	0.925672
0.796637	10.5498	0.925466
0.807994	10.5378	0.923743
0.814607	10.5297	0.921628
0.825201	10.519	0.919825
0.83912	10.5055	0.91952
0.85381	10.493	0.922297
0.868777	10.4787	0.926455
0.8807	10.4665	0.928448
0.887815	10.457	0.928239
0.8925	10.4502	0.927472
0.896585	10.4425	0.92604
0.907395	10.4282	0.925332
0.91411	10.418	0.926016
0.923825	10.4065	0.927865
0.934981	10.3957	0.929699
0.943313	10.3855	0.929924
0.948933	10.3761	0.929618
0.956073	10.3657	0.928787
0.961898	10.3569	0.928692
0.970201	10.3469	0.928599
0.980967	10.3347	0.929019
0.9931	10.3208	0.929905
1.00266	10.308	0.930655
1.01111	10.2963	0.930791
1.01887	10.2856	0.930666
1.02709	10.2744	0.930277
1.03527	10.2622	0.929698
1.04453	10.2478	0.929099
1.0535	10.2348	0.928739
1.06224	10.2224	0.928527
1.07004	10.2099	0.927213
1.07443	10.199	0.923867
1.07939	10.1867	0.921953
1.08794	10.1728	0.920303
1.0969	10.1584	0.919975
1.10584	10.1472	0.917602
1.11262	10.1382	0.917051
1.11942	10.1264	0.91679
1.12691	10.1128	0.916686
1.13664	10.1014	0.917778
1.14578	10.0892	0.917336
1.15442	10.0798	0.916312
1.16328	10.0681	0.915546
1.16795	10.0589	0.914718
1.17323	10.0504	0.913501
1.18127	10.0434	0.91122
1.18877	10.0303	0.911063
1.19728	10.0183	0.911835
1.20553	10.007	0.912638
1.21147	9.99418	0.911853
1.21843	9.98374	0.911828
1.22387	9.97295	0.911281
1.22649	9.96219	0.909747
1.23227	9.94798	0.909694
1.23708	9.93606	0.910526
1.2446	9.92526	0.911507
1.25291	9.91291	0.911811
1.25874	9.90079	0.911816
1.26063	9.89021	0.910586
1.26323	9.87986	0.908982
1.26873	9.86799	0.9067
1.27464	9.85658	0.905858
1.27966	9.84539	0.905681
1.2837	9.83219	0.905502
1.28837	9.81896	0.905542
1.29481	9.80638	0.906817
1.30021	9.79487	0.907449
1.30391	9.78376	0.907132
1.30626	9.77359	0.905823
1.30974	9.7636	0.905647
1.31703	9.75179	0.905547
1.32125	9.74374	0.905495
1.32543	9.73186	0.904891
1.33071	9.72258	0.904789
1.33696	9.71365	0.904727
1.34242	9.70232	0.9059
1.3483	9.69556	0.905989
1.3548	9.69143	0.905246
1.3584	9.683	0.904159
1.35922	9.67351	0.904033
1.36147	9.66278	0.90805
1.36679	9.65804	0.910791
1.3689	9.65437	0.910764
1.3717	9.65014	0.909631
1.37389	9.64324	0.90736
1.37569	9.63768	0.906805
1.37908	9.63142	0.907242
1.38269	9.62547	0.908108
1.38615	9.62013	0.90896
1.38926	9.61422	0.909227
1.393	9.60762	0.910057
1.39753	9.60266	0.911739
1.40101	9.59972	0.912001
1.40492	9.5958	0.912052
1.40837	9.58854	0.911711
1.41165	9.58458	0.911425
1.41343	9.58003	0.910628
1.41618	9.57647	0.910476
1.42012	9.57311	0.910415
1.42408	9.57047	0.909388
1.42736	9.56729	0.907882
1.43058	9.56393	0.906356
1.43399	9.55896	0.906186
1.43846	9.55467	0.907123
1.44121	9.54986	0.908792
1.44699	9.5476	0.909672
1.44905	9.54412	0.910729
1.45279	9.53824	0.911737
1.45802	9.53323	0.912729
1.46291	9.52911	0.91299
1.46496	9.52509	0.913937
1.46739	9.5219	0.915132
1.47076	9.51842	0.917953
1.47594	9.51367	0.919675
1.48161	9.51231	0.919977
1.483	9.50974	0.920049
1.485	9.50873	0.920037
1.48669	9.50529	0.920495
1.48902	9.50243	0.92198
1.49316	9.49827	0.924034
1.49685	9.49566	0.924208
1.49692	9.4959	0.924373
1.49799	9.49456	0.924239
1.4993	9.49264	0.924185
1.50056	9.49058	0.924299
1.50167	9.48955	0.924516
1.50288	9.48915	0.924254
1.50487	9.48775	0.924045
1.50528	9.486	0.924292
1.5075	9.4841	0.924432
1.50841	9.48283	0.924446
1.50916	9.48201	0.924408
1.5104	9.47904	0.924741
1.51354	9.47665	0.925547
1.75706	9.63473	0.753574
1.75719	9.63358	0.753183
1.7573	9.63358	0.753182
1.75748	9.63301	0.753182
1.75836	9.63218	0.75346
1.75991	9.6318	0.754063
1.76065	9.63159	0.75437
1.76086	9.63144	0.754507
1.76153	9.63112	0.754578
1.76178	9.63087	0.754614
1.76195	9.63041	0.754521
1.76216	9.62966	0.753872
1.76238	9.62956	0.753553
1.76293	9.62946	0.753468
1.76312	9.62953	0.753478
1.76327	9.62959	0.753404
1.76369	9.62959	0.753336
1.76394	9.62955	0.753036
1.7642	9.62956	0.752901
